ply
format ascii 1.0
comment Created by Open3D
element vertex 1362
property double x
property double y
property double z
property uchar red
property uchar green
property uchar blue
end_header
-2.6885 -0.3775 0.0075 31 119 180
-5.7315 0.0325 -0.6085 174 199 232
-3.9125 -1.3175 -0.6165 174 199 232
-3.1695 -0.6055 -0.6095 174 199 232
-5.7975 0.2245 -1.1565 174 199 232
-3.0465 -0.8185 -0.6095 174 199 232
-3.5885 -1.0815 0.5025 31 119 180
-6.0755 0.5725 -0.9285 174 199 232
-4.2565 -1.6115 0.0325 31 119 180
-2.5075 -0.4565 0.3925 31 119 180
-6.2955 0.8025 -0.6085 174 199 232
-2.4525 -0.5315 -1.1865 174 199 232
-6.2035 0.7315 -0.8025 174 199 232
-3.8075 -0.9795 -0.9385 174 199 232
-5.6315 0.0145 -1.0465 174 199 232
-3.8515 -1.2905 0.3955 31 119 180
-6.1705 0.6905 -0.9575 174 199 232
-3.8755 -1.3105 -0.0705 31 119 180
-2.9065 -0.2535 -1.1755 174 199 232
-3.6695 -1.1445 0.5315 31 119 180
-6.0205 0.5315 -0.6395 174 199 232
-6.1125 0.6185 -0.9615 174 199 232
-3.4275 -0.9565 0.2145 31 119 180
-3.2215 -0.5025 -1.2565 174 199 232
-2.8415 -0.4965 -0.0205 31 119 180
-5.9005 0.3595 -0.7365 174 199 232
-3.0555 -0.7015 -0.6315 174 199 232
-2.5905 -0.3555 -1.1355 174 199 232
-3.7715 -1.6095 -0.6275 174 199 232
-5.8485 0.2205 -0.6115 174 199 232
-2.5055 -0.4585 0.2465 31 119 180
-3.1355 -0.4345 -0.6575 174 199 232
-5.6435 0.0285 -1.0585 174 199 232
-2.6125 -0.3295 -0.6775 174 199 232
-4.1365 -1.5165 0.1745 31 119 180
-3.0385 -0.6505 0.2985 31 119 180
-3.8315 -0.9815 -0.9485 174 199 232
-5.6905 0.0885 -1.0705 174 199 232
-5.7455 0.1585 -1.2975 174 199 232
-3.1715 -0.4635 -1.4085 174 199 232
-4.5615 -1.8515 0.3655 31 119 180
-2.5855 -0.3565 0.1465 31 119 180
-5.9305 0.3915 -1.1015 174 199 232
-2.4435 -0.5415 -1.2065 174 199 232
-2.5305 -0.4325 -0.6715 174 199 232
-4.2245 -1.5865 0.3165 31 119 180
-2.8655 -0.2205 -0.9045 174 199 232
-2.7955 -0.3715 -0.6085 174 199 232
-5.7385 0.1515 -1.3765 174 199 232
-3.3905 -0.6335 -0.8825 174 199 232
-2.6255 -0.3125 -1.3175 174 199 232
-3.7885 -0.9355 -0.9085 174 199 232
-2.8455 -0.2055 -0.9885 174 199 232
-5.8575 0.3025 -0.8495 174 199 232
-6.1625 0.6825 -0.7765 174 199 232
-3.3605 -0.6155 -0.9665 174 199 232
-3.3515 -0.6075 -0.9195 174 199 232
-2.8405 -0.4965 -0.0605 31 119 180
-5.6555 0.0455 -0.9305 174 199 232
-5.6515 0.0435 -0.7355 174 199 232
-3.0735 -0.3865 -0.6565 174 199 232
-6.3265 0.8845 -1.1345 174 199 232
-3.9275 -1.6965 -0.6325 174 199 232
-5.6735 0.0685 -1.3145 174 199 232
-2.6935 -0.3815 0.2915 31 119 180
-3.4055 -0.9395 0.0295 31 119 180
-2.5255 -0.4325 0.5655 31 119 180
-3.3275 -1.2985 -0.6095 174 199 232
-6.0795 0.6025 -0.6085 174 199 232
-2.4505 -0.5275 0.0595 31 119 180
-5.8185 0.2515 -0.8715 174 199 232
-5.7575 0.1785 -0.7395 174 199 232
-2.9465 -0.5795 0.2095 31 119 180
-6.2805 0.6495 -0.6085 174 199 232
-3.0575 -0.3705 -0.6095 174 199 232
-2.7955 -0.2525 -1.4945 174 199 232
-4.0795 -1.4725 0.0795 31 119 180
-3.2265 -0.7985 0.1905 31 119 180
-3.4735 -0.9925 0.4435 31 119 180
-4.3015 -1.6435 0.6405 31 119 180
-3.4695 -0.9885 0.6005 31 119 180
-2.4435 -0.5365 0.0775 31 119 180
-3.4925 -1.0075 0.5285 31 119 180
-2.7225 -0.4045 0.2495 31 119 180
-2.4285 -0.5625 -1.2355 174 199 232
-3.3545 -0.8995 0.4495 31 119 180
-2.8535 -0.5055 0.4075 31 119 180
-6.2605 0.8015 -0.9065 174 199 232
-2.4805 -0.4985 -0.7185 174 199 232
-2.4585 -0.4815 -0.6325 174 199 232
-6.0955 0.5955 -0.9825 174 199 232
-3.0925 -0.4015 -0.7775 174 199 232
-2.5905 -0.3575 -1.2545 174 199 232
-6.1395 0.5405 -1.4925 174 199 232
-6.2485 0.7875 -1.3735 174 199 232
-2.6145 -0.3265 -0.8355 174 199 232
-3.2605 -0.8245 0.6155 31 119 180
-2.8335 -0.4915 0.0555 31 119 180
-3.2415 -0.5185 -0.6685 174 199 232
-6.2385 0.7765 -0.7895 174 199 232
-2.6425 -0.2455 -0.6415 174 199 232
-3.9025 -1.3315 0.3695 31 119 180
-3.2575 -0.8245 0.1345 31 119 180
-3.9055 -1.3345 0.0235 31 119 180
-2.5985 -0.3415 0.5395 31 119 180
-3.9025 -1.0375 -0.9365 174 199 232
-2.6615 -0.2665 -1.0035 174 199 232
-2.5575 -0.3975 -1.3805 174 199 232
-6.3555 0.9225 -1.3815 174 199 232
-3.2965 -0.8545 0.6405 31 119 180
-6.3665 0.9315 -1.4125 174 199 232
-2.6505 -0.2835 -1.4515 174 199 232
-3.6555 -1.1355 0.2495 31 119 180
-6.1505 0.6645 -0.9645 174 199 232
-6.0385 0.5545 -0.6315 174 199 232
-3.4115 -0.9435 0.3195 31 119 180
-2.5125 -0.4505 0.4585 31 119 180
-3.9025 -1.0375 -0.9035 174 199 232
-2.9645 -0.2965 -1.1065 174 199 232
-2.8445 -0.2045 -1.2655 174 199 232
-4.0335 -1.4355 0.3665 31 119 180
-2.5985 -0.3455 -1.2015 174 199 232
-5.6795 0.0755 -1.3135 174 199 232
-3.9225 -1.3445 0.6025 31 119 180
-2.6925 -0.3785 0.4315 31 119 180
-2.7645 -0.1525 -1.0435 174 199 232
-3.2835 -0.8435 0.5105 31 119 180
-3.7355 -0.9075 -0.7415 174 199 232
-3.0285 -0.6405 0.6045 31 119 180
-3.1005 -0.7055 -0.6105 174 199 232
-2.8005 -0.4635 0.6035 31 119 180
-5.7885 0.2135 -0.8745 174 199 232
-3.8185 -1.2625 0.6295 31 119 180
-6.2895 0.8255 -0.6085 174 199 232
-3.1755 -0.7605 0.1535 31 119 180
-6.2865 0.8345 -0.9105 174 199 232
-6.2595 0.1315 -0.6525 174 199 232
-3.2565 -0.8225 0.5985 31 119 180
-5.7425 0.0435 -1.4775 174 199 232
-2.6975 -0.3855 0.1965 31 119 180
-6.3475 0.9125 -1.3255 174 199 232
-2.4535 -0.5245 0.6125 31 119 180
-3.7395 -0.8925 -0.9485 174 199 232
-2.6445 -0.2875 -0.7215 174 199 232
-4.0855 -1.1825 -0.7445 174 199 232
-2.9195 -0.7595 -0.6225 174 199 232
-2.7605 -0.4325 0.4795 31 119 180
-3.0915 -0.4005 -1.0455 174 199 232
-6.2785 0.8265 -0.7365 174 199 232
-2.9835 -0.7335 -0.6175 174 199 232
-3.7905 -1.5355 -0.6075 174 199 232
-5.9055 0.3615 -0.9555 174 199 232
-2.5535 -0.3975 0.4425 31 119 180
-3.3155 -0.8675 0.6205 31 119 180
-5.9885 0.4785 -0.6095 174 199 232
-2.5725 -0.3805 -0.7145 174 199 232
-5.9755 0.4505 -0.8985 174 199 232
-3.2125 -0.4955 -0.9635 174 199 232
-3.0815 -0.3915 -0.7465 174 199 232
-4.4965 -1.7965 0.5855 31 119 180
-2.8445 -0.2055 -1.2835 174 199 232
-2.9505 -0.2655 -1.1095 174 199 232
-3.1065 -0.7055 0.4625 31 119 180
-4.2695 -1.6225 0.4815 31 119 180
-2.8165 -0.4765 0.5105 31 119 180
-2.8545 -0.2125 -1.2535 174 199 232
-5.7915 0.2165 -1.0635 174 199 232
-2.8315 -0.4895 -0.0645 31 119 180
-6.3135 0.8695 -1.2705 174 199 232
-6.5075 0.3305 -0.6155 174 199 232
-5.8615 0.1915 -1.4595 174 199 232
-5.8945 0.3455 -1.2525 174 199 232
-3.6745 -0.8375 -0.6305 174 199 232
-3.1315 -0.7245 0.1795 31 119 180
-3.5385 -1.0435 0.2005 31 119 180
-2.7495 -0.4255 0.2065 31 119 180
-2.6385 -0.6285 -0.6305 174 199 232
-6.3495 0.9145 -1.0485 174 199 232
-5.9735 0.4455 -1.0865 174 199 232
-6.1555 0.6725 -0.9995 174 199 232
-2.7735 -0.5315 -0.6095 174 199 232
-3.0915 -0.4005 -1.1375 174 199 232
-5.9615 0.4315 -0.9165 174 199 232
-5.7165 0.1225 -0.8465 174 199 232
-5.7395 0.1495 -1.1925 174 199 232
-3.9235 -1.3485 0.2155 31 119 180
-4.2995 -1.6425 0.4225 31 119 180
-6.5945 0.6985 -0.6085 174 199 232
-3.5555 -1.0575 0.2495 31 119 180
-6.2315 0.7675 -1.1345 174 199 232
-2.9285 -0.2705 -0.9415 174 199 232
-5.6535 0.0475 -0.6875 174 199 232
-3.9225 -1.3475 0.2955 31 119 180
-2.6765 -0.3655 0.6195 31 119 180
-3.1945 -0.4805 -0.8255 174 199 232
-2.4615 -0.5145 0.0175 31 119 180
-4.4655 -1.7775 0.0375 31 119 180
-5.9375 0.4005 -1.2855 174 199 232
-3.9905 -1.1075 -0.9135 174 199 232
-3.1605 -0.7755 -0.0335 31 119 180
-5.9255 0.3875 -0.9205 174 199 232
-6.2495 0.7905 -1.3885 174 199 232
-3.3845 -0.9225 0.6345 31 119 180
-3.7725 -0.9365 -0.6835 174 199 232
-2.6885 -0.3755 0.5545 31 119 180
-2.9015 -0.2505 -1.1415 174 199 232
-2.8625 -0.5125 0.5505 31 119 180
-2.5385 -0.4225 -0.7735 174 199 232
-3.0865 -0.3955 -1.1855 174 199 232
-5.9135 0.3735 -0.8175 174 199 232
-6.1485 0.4055 -0.6095 174 199 232
-3.9765 -1.0965 -0.8215 174 199 232
-6.2615 0.8045 -1.0545 174 199 232
-6.2315 0.7675 -1.0525 174 199 232
-2.8525 -0.2765 -0.6085 174 199 232
-5.7855 0.2165 -0.6565 174 199 232
-6.0215 0.5055 -0.7075 174 199 232
-3.5315 -1.0385 0.3495 31 119 180
-3.3025 -0.8585 0.6215 31 119 180
-6.3725 0.5005 -0.6095 174 199 232
-4.4045 -1.7265 0.4875 31 119 180
-2.9195 -0.2645 -1.2955 174 199 232
-5.6925 0.0945 -0.7885 174 199 232
-6.0255 0.2505 -0.6095 174 199 232
-5.8205 0.2535 -1.0245 174 199 232
-2.8475 -0.4995 0.6195 31 119 180
-2.7835 -0.4495 0.6355 31 119 180
-5.7175 0.1235 -0.9455 174 199 232
-2.8485 -0.2945 -1.4825 174 199 232
-6.1045 0.6095 -0.7535 174 199 232
-2.8245 -0.1895 -1.4195 174 199 232
-3.0965 -0.4035 -1.3005 174 199 232
-2.5925 -0.3495 0.4555 31 119 180
-2.7535 -0.1575 -1.3225 174 199 232
-3.1855 -0.7665 0.2365 31 119 180
-3.0725 -0.6755 0.4765 31 119 180
-2.6425 -0.2895 -1.0555 174 199 232
-3.0055 -0.3085 -0.6275 174 199 232
-6.2475 0.7865 -0.7805 174 199 232
-2.9365 -0.2785 -0.8045 174 199 232
-3.0685 -0.6735 0.1835 31 119 180
-4.0915 -1.4075 -0.6085 174 199 232
-3.3555 -0.6175 -0.9215 174 199 232
-2.9625 -0.5915 -0.1105 31 119 180
-2.9175 -0.2695 -1.0415 174 199 232
-3.7255 -1.1895 0.3285 31 119 180
-2.5225 -0.4435 -0.7775 174 199 232
-1.4975 0.1505 -0.0915 255 187 120
-2.4395 -0.5475 -1.3505 174 199 232
-6.3425 0.9045 -1.2005 174 199 232
-6.1905 0.7145 -1.1165 174 199 232
-2.8935 -0.5375 0.4535 31 119 180
-3.7575 -1.2165 0.1335 31 119 180
-3.6225 -1.1105 0.1995 31 119 180
-2.6205 -0.3165 -1.0625 174 199 232
-6.2375 0.7745 -1.3505 174 199 232
-2.9625 -0.2985 -1.1905 174 199 232
-2.6105 -0.3315 -0.9775 174 199 232
-2.9945 -0.3235 -1.2165 174 199 232
-5.6195 0.0015 -0.8525 174 199 232
-2.7455 -0.3985 -0.6185 174 199 232
-2.9835 -0.3145 -1.3585 174 199 232
-2.9645 -0.3005 -1.1525 174 199 232
-3.3535 -0.6095 -1.1165 174 199 232
-4.0965 -1.4845 0.4975 31 119 180
-6.0825 0.5795 -1.3445 174 199 232
-2.8065 -0.7925 -0.6085 174 199 232
-2.9735 -0.5995 0.3925 31 119 180
-6.1675 0.6865 -1.3955 174 199 232
-2.5525 -0.4025 -0.8625 174 199 232
-3.5545 -0.7155 -0.8345 174 199 232
-4.4155 -1.7345 0.4225 31 119 180
-3.7225 -0.8975 -0.7375 174 199 232
-3.1745 -0.4655 -0.8535 174 199 232
-2.6865 -0.3765 0.0575 31 119 180
-2.8785 -0.2325 -1.3685 174 199 232
-5.8445 0.2865 -0.7675 174 199 232
-2.7235 -0.4055 0.0245 31 119 180
-2.8385 -0.4505 -0.6105 174 199 232
-3.6595 -1.1385 0.0785 31 119 180
-6.1245 0.1775 -0.6095 174 199 232
-6.0165 0.4895 -0.6085 174 199 232
-3.5885 -1.0825 0.3995 31 119 180
-6.1125 0.5565 -0.6085 174 199 232
-3.9435 -1.3635 0.3965 31 119 180
-3.0385 -0.3585 -0.9395 174 199 232
-3.1195 -0.4225 -1.3085 174 199 232
-3.0455 -0.3655 -1.0375 174 199 232
-3.1095 -0.3905 -0.6175 174 199 232
-2.4375 -0.5525 -0.6885 174 199 232
-2.5505 -0.4065 -1.0625 174 199 232
-3.1715 -0.7555 0.3705 31 119 180
-5.9345 0.0785 -0.6155 174 199 232
-3.2045 -0.7825 0.2535 31 119 180
-2.5475 -0.4045 0.3275 31 119 180
-4.4305 -1.7485 0.1755 31 119 180
-2.4365 -0.5475 0.4765 31 119 180
-3.2325 -0.5145 -0.8975 174 199 232
-4.0025 -1.1175 -0.7485 174 199 232
-2.7915 -0.3265 -0.6085 174 199 232
-2.9265 -0.8655 -0.6115 174 199 232
-5.9075 0.3885 -0.6215 174 199 232
-1.4945 0.1585 -0.1075 255 187 120
-5.9385 0.4015 -0.9685 174 199 232
-3.1905 -0.7705 0.5675 31 119 180
-2.8235 -0.1895 -1.0125 174 199 232
-4.4935 -1.7975 0.2255 31 119 180
-2.5565 -0.3915 0.1255 31 119 180
-3.5905 -1.0835 0.6325 31 119 180
-3.8855 -1.7385 -0.6225 174 199 232
-2.9015 -0.2515 -1.4245 174 199 232
-4.0335 -1.6955 -0.6335 174 199 232
-6.4075 0.7515 -0.6085 174 199 232
-6.0055 0.4835 -1.1235 174 199 232
-6.1545 0.6745 -0.6575 174 199 232
-2.5325 -0.4295 -0.7905 174 199 232
-3.0755 -0.3875 -1.1695 174 199 232
-3.8805 -1.0175 -0.7235 174 199 232
-2.4475 -0.5325 0.5855 31 119 180
-3.0525 -0.6615 0.2535 31 119 180
-3.8205 0.7535 0.8515 152 223 138
-6.0315 0.5185 -1.0535 174 199 232
-3.4285 -0.6415 -0.8145 174 199 232
-6.1835 0.7075 -0.8275 174 199 232
-2.4965 -0.4755 -0.8265 174 199 232
-2.7645 -0.2845 -0.6105 174 199 232
-1.5645 0.0965 -0.0165 255 187 120
-2.5765 -0.3765 -1.4605 174 199 232
-5.9815 0.4555 -1.1355 174 199 232
-3.0395 -0.6515 -0.1245 31 119 180
-2.7415 -0.4195 -0.0365 31 119 180
-5.7605 0.1785 -0.8845 174 199 232
-2.6205 -0.4055 -0.6355 174 199 232
-6.0045 0.4715 -0.6095 174 199 232
-3.2555 -1.2265 -0.6175 174 199 232
-2.6205 -0.2745 -0.6355 174 199 232
-2.7875 -0.1595 -1.0855 174 199 232
-3.0685 -0.6725 0.4665 31 119 180
-2.7555 -0.1525 -1.2995 174 199 232
-2.6175 -0.3215 -1.2115 174 199 232
-4.1445 -1.5235 0.0435 31 119 180
-2.6135 -0.3255 0.6165 31 119 180
-3.0305 -0.4745 -0.6095 174 199 232
-5.6725 0.0705 -0.8195 174 199 232
-2.9795 -0.8685 -0.6095 174 199 232
-3.1315 -0.4325 -0.9815 174 199 232
-6.1635 0.6815 -1.2995 174 199 232
-3.3105 -1.0055 -0.6345 174 199 232
-2.6815 -0.2405 -0.9885 174 199 232
-2.5905 -0.5975 -0.6075 174 199 232
-5.8675 0.3115 -0.9585 174 199 232
-3.4975 -1.0115 0.1025 31 119 180
-2.8325 -0.1965 -0.9425 174 199 232
-3.5115 -1.0215 0.4235 31 119 180
-2.8685 -0.2235 -0.6625 174 199 232
-3.8815 -1.3165 0.1135 31 119 180
-6.0115 0.4955 -0.6605 174 199 232
-6.2515 0.7935 -1.1955 174 199 232
-6.0285 0.5125 -1.1275 174 199 232
-6.2065 0.4985 -0.6225 174 199 232
-3.3545 -0.6115 -1.0215 174 199 232
-2.6525 -0.3495 0.1095 31 119 180
-6.1315 0.6405 -1.2545 174 199 232
-6.2035 0.7315 -0.8535 174 199 232
-2.6915 -0.3815 0.2005 31 119 180
-3.0735 -0.6775 -0.0185 31 119 180
-5.9305 0.4035 -0.6505 174 199 232
-3.1575 -0.7455 0.1765 31 119 180
-6.3355 0.8975 -0.9385 174 199 232
-2.4215 -0.5705 -0.8845 174 199 232
-4.6365 -1.9125 0.1395 31 119 180
-6.1865 0.7115 -1.0895 174 199 232
-6.2565 0.7975 -0.9855 174 199 232
-2.9055 -0.2535 -0.9815 174 199 232
-6.0635 0.5815 -0.6085 174 199 232
-3.2925 -0.8495 0.5625 31 119 180
-3.6555 -0.8625 -0.6985 174 199 232
-3.2325 -0.5155 -1.0075 174 199 232
-3.1315 -0.7235 0.4035 31 119 180
-6.3595 0.9285 -1.3915 174 199 232
-5.9265 0.3875 -0.8945 174 199 232
-2.5875 -0.3585 -1.4195 174 199 232
-2.9585 -0.5885 0.1395 31 119 180
-5.7445 0.1565 -1.1635 174 199 232
-3.3385 -0.5955 -0.8745 174 199 232
-3.7425 -0.8895 -0.6355 174 199 232
-3.0775 -0.3895 -0.8275 174 199 232
-5.7745 0.1455 -0.6085 174 199 232
-5.9275 0.3885 -1.3325 174 199 232
-2.5355 -0.4255 -0.8515 174 199 232
-2.6725 -0.2525 -1.1155 174 199 232
-6.1325 0.6435 -1.3425 174 199 232
-3.7195 -1.1845 0.6305 31 119 180
-3.3915 -0.9765 -0.6195 174 199 232
-3.4585 -0.6785 -0.8095 174 199 232
-2.9955 -0.6175 0.0035 31 119 180
-2.7305 -0.4105 -0.0815 31 119 180
-5.7215 0.1345 -0.6785 174 199 232
-3.1005 -0.4075 -0.7235 174 199 232
-3.1235 -0.6575 -0.6255 174 199 232
-5.7565 0.1725 -1.3465 174 199 232
-3.4265 -0.7945 -0.6175 174 199 232
-2.7315 -0.4125 0.1525 31 119 180
-3.1215 -0.8645 -0.6105 174 199 232
-2.6575 -0.2715 -0.7915 174 199 232
-2.4715 -0.5015 0.5505 31 119 180
-5.9875 0.4625 -0.6905 174 199 232
-3.8105 -1.2575 0.4265 31 119 180
-2.7785 -0.4455 0.6225 31 119 180
-2.7175 -0.3985 0.5435 31 119 180
-3.4535 -0.6845 -0.6845 174 199 232
-4.7055 -1.9625 0.4755 31 119 180
-2.9045 -0.2385 -0.6085 174 199 232
-2.7795 -0.5155 -0.6215 174 199 232
-3.2245 -0.5055 -0.8775 174 199 232
-6.0215 0.5045 -0.9515 174 199 232
-3.3935 -0.6385 -1.2645 174 199 232
-3.1445 -0.7345 0.5585 31 119 180
-4.0475 -1.4465 0.3435 31 119 180
-6.0575 0.5485 -1.1975 174 199 232
-2.7985 -0.2015 -0.6125 174 199 232
-5.8385 0.2765 -1.3455 174 199 232
-3.6905 -1.5845 -0.7185 174 199 232
-3.2645 -0.8305 0.0065 31 119 180
-3.0505 -0.6585 0.5845 31 119 180
-3.7895 -1.2405 0.2965 31 119 180
-4.4785 -1.7865 0.2465 31 119 180
-4.4845 -1.7895 0.4495 31 119 180
-5.7775 0.1995 -1.3425 174 199 232
-2.6545 -0.2765 -1.4125 174 199 232
-3.3535 -0.8995 0.0125 31 119 180
-3.3785 -0.6205 -0.8455 174 199 232
-3.3555 -0.6125 -1.2125 174 199 232
-2.9495 -0.3015 -0.6085 174 199 232
-3.6585 -0.8265 -0.6095 174 199 232
-2.7655 -0.4355 0.5755 31 119 180
-3.3175 -0.5795 -1.1205 174 199 232
-2.7275 -0.1825 -0.7555 174 199 232
-2.5825 -0.3615 0.4355 31 119 180
-2.4245 -0.5665 -0.7295 174 199 232
-6.2385 0.7795 -0.6075 174 199 232
-3.5585 -0.7695 -0.7465 174 199 232
-2.8805 -0.2335 -0.8595 174 199 232
-2.9005 -0.5435 -0.0755 31 119 180
-2.9585 -0.2935 -0.7455 174 199 232
-5.8425 0.2805 -1.3215 174 199 232
-6.0795 0.5775 -1.0405 174 199 232
-6.0065 0.3725 -1.4655 174 199 232
-2.6045 -0.3165 -0.6495 174 199 232
-6.2205 0.3295 -0.6095 174 199 232
-6.2655 0.3495 -0.6095 174 199 232
-6.3775 0.5615 -0.6095 174 199 232
-2.5425 -0.4165 -1.0465 174 199 232
-5.8215 0.2555 -1.0485 174 199 232
-2.6275 -0.3285 0.4685 31 119 180
-3.4135 -0.6825 -1.0425 174 199 232
-4.2645 -1.6155 0.4995 31 119 180
-2.5725 -0.3795 -1.1105 174 199 232
-2.5165 -0.4455 0.6215 31 119 180
-3.1915 -0.7725 0.2065 31 119 180
-3.8075 -1.2565 0.2665 31 119 180
-3.0755 -0.6795 0.4215 31 119 180
-2.6865 -0.3755 0.0825 31 119 180
-6.5225 0.7265 -0.6185 174 199 232
-4.5435 -1.8375 0.0525 31 119 180
-2.7365 -0.1725 -0.7095 174 199 232
-3.1145 -0.7125 0.0875 31 119 180
-2.5365 -0.4175 0.0095 31 119 180
-2.7265 -0.3135 -0.6075 174 199 232
-3.3765 -0.9165 0.6115 31 119 180
-2.7395 -0.1675 -0.9835 174 199 232
-2.9175 -0.2625 -1.2085 174 199 232
-2.8115 -0.4725 0.6025 31 119 180
-4.0005 -1.4065 0.6145 31 119 180
-6.2645 0.8095 -1.1465 174 199 232
-5.8855 0.3355 -0.9725 174 199 232
-2.4265 -0.5635 -0.9305 174 199 232
-6.6075 0.5455 -0.6135 174 199 232
-4.5525 -1.8445 0.1485 31 119 180
-3.0985 -0.6985 0.3415 31 119 180
-6.3445 0.9085 -1.0025 174 199 232
-3.9745 -1.0965 -0.9095 174 199 232
-6.2905 0.8755 -0.6335 174 199 232
-4.4065 -1.7295 0.1965 31 119 180
-6.3385 0.9025 -0.9845 174 199 232
-2.9535 -0.2915 -1.1695 174 199 232
-6.2735 0.8195 -1.1985 174 199 232
-6.1305 0.6395 -1.0555 174 199 232
-4.0965 -1.4855 0.0905 31 119 180
-3.9395 -1.3575 0.6135 31 119 180
-4.3195 -1.6605 0.2935 31 119 180
-2.8035 -0.1725 -1.2255 174 199 232
-4.0695 -1.1335 -0.7145 174 199 232
-3.3315 -0.8805 0.5915 31 119 180
-2.9055 -0.3325 -0.6095 174 199 232
-3.3855 -0.9315 0.000499998 31 119 180
-4.0085 -1.4165 0.1935 31 119 180
-6.3185 0.8745 -1.0625 174 199 232
-5.7645 0.1875 -0.7825 174 199 232
-5.6265 0.0075 -1.2395 174 199 232
-3.8295 -0.9805 -0.9575 174 199 232
-5.8565 0.2985 -0.9625 174 199 232
-6.3965 0.4005 -0.6505 174 199 232
-2.9075 -0.2545 -0.9695 174 199 232
-6.4425 0.3765 -0.6115 174 199 232
-5.7205 0.1265 -1.0195 174 199 232
-3.0995 -1.0805 -0.6085 174 199 232
-2.7925 -0.1645 -1.1175 174 199 232
-4.0765 -1.1755 -0.8125 174 199 232
-2.6975 -0.4515 -0.6245 174 199 232
-5.7595 0.1815 -0.7015 174 199 232
-3.3465 -0.8925 0.6135 31 119 180
-3.4245 -0.6715 -0.9615 174 199 232
-2.4135 -0.5765 0.1415 31 119 180
-3.3515 -1.2155 -0.6185 174 199 232
-5.9865 0.4605 -1.1985 174 199 232
-3.4805 -0.7325 -0.7975 174 199 232
-6.0665 0.4425 -0.6085 174 199 232
-2.9915 -0.6445 -0.6095 174 199 232
-2.5735 -0.3775 -1.4145 174 199 232
-2.7165 -0.3995 0.0755 31 119 180
-2.4755 -0.5025 -0.9215 174 199 232
-6.3585 0.9285 -0.7475 174 199 232
-2.6445 -0.3435 0.3195 31 119 180
-2.7045 -0.3915 0.0295 31 119 180
-3.4155 -0.6555 -0.7225 174 199 232
-2.6255 -0.3285 0.1725 31 119 180
-6.1145 0.3795 -0.6095 174 199 232
-3.0225 -0.6385 0.1485 31 119 180
-3.7145 -1.5835 -0.6185 174 199 232
-5.6385 0.0235 -0.9845 174 199 232
-3.5475 -1.0515 0.3035 31 119 180
-2.8805 -0.5285 0.1895 31 119 180
-2.7325 -0.1755 -0.8865 174 199 232
-3.1215 -0.4235 -0.8355 174 199 232
-3.1765 -0.4665 -1.0825 174 199 232
-3.6855 -1.1335 -0.6095 174 199 232
-2.8785 -0.2325 -1.4155 174 199 232
-4.2335 -1.5935 0.0725 31 119 180
-2.9735 -0.3065 -1.1865 174 199 232
-6.0775 0.6185 -0.7165 174 199 232
-5.9415 0.4045 -1.1765 174 199 232
-3.0375 -1.0205 -0.6085 174 199 232
-2.7855 -0.4535 0.0835 31 119 180
-2.7015 -0.3865 0.4195 31 119 180
-3.2025 -0.4885 -1.3185 174 199 232
-3.3415 -0.8905 0.1965 31 119 180
-3.9125 -1.3395 0.0395 31 119 180
-6.0085 0.4885 -1.2535 174 199 232
-6.1585 0.6755 -1.4005 174 199 232
-2.5355 -0.4255 -0.7825 174 199 232
-3.9865 -1.3985 0.1255 31 119 180
-3.2335 -0.8055 0.1875 31 119 180
-2.8245 -0.1905 -1.2335 174 199 232
-2.7745 -0.1495 -0.8135 174 199 232
-2.6125 -0.3275 -1.2475 174 199 232
-6.2165 0.7495 -0.9375 174 199 232
-5.7005 0.1025 -1.1115 174 199 232
-6.0075 0.3255 -0.6235 174 199 232
-3.1055 -1.0375 -0.6315 174 199 232
-5.8145 0.2885 -0.7125 174 199 232
-4.0445 -1.4435 0.4255 31 119 180
-5.7225 0.1265 -0.6095 174 199 232
-3.2995 -0.8565 0.5235 31 119 180
-3.1705 -0.7555 0.5365 31 119 180
-3.0305 -0.3525 -1.3995 174 199 232
-2.8975 -0.5405 0.4615 31 119 180
-2.8425 -0.2035 -0.6705 174 199 232
-2.6415 -0.3415 0.1435 31 119 180
-6.3515 0.9065 -0.6095 174 199 232
-2.6735 -0.2045 -0.6285 174 199 232
-6.3495 0.9135 -1.1615 174 199 232
-2.8565 -0.9275 -0.6235 174 199 232
-3.0985 -0.7125 -0.6315 174 199 232
-2.4435 -0.5365 0.0325 31 119 180
-2.7555 -0.4275 0.5775 31 119 180
-2.9545 -0.3895 -0.6085 174 199 232
-2.5645 -0.3845 0.5935 31 119 180
-2.9965 -0.3245 -1.2585 174 199 232
-3.0695 -0.3825 -1.2185 174 199 232
-3.4275 -0.9565 0.4685 31 119 180
-4.6715 -1.9385 0.3765 31 119 180
-3.2595 -0.5315 -1.1305 174 199 232
-2.4665 -0.5095 0.2795 31 119 180
-4.0275 -1.4315 0.1915 31 119 180
-3.4265 -0.9555 0.0915 31 119 180
-2.4125 -0.5755 0.0705 31 119 180
-3.8345 -1.2755 0.5925 31 119 180
-5.9895 0.0925 -0.6075 174 199 232
-3.6875 -0.8475 -0.6415 174 199 232
-2.4875 -0.4865 -1.2905 174 199 232
-3.4525 -0.9775 0.0215 31 119 180
-6.2895 0.8385 -1.2395 174 199 232
-2.6055 -0.3385 -0.6685 174 199 232
-2.6245 -0.3125 -1.3085 174 199 232
-2.6455 -0.2865 -1.1885 174 199 232
-2.5075 -0.4615 -1.0545 174 199 232
-6.1375 0.1535 -0.6095 174 199 232
-6.1185 0.6265 -0.9995 174 199 232
-2.8245 -0.7995 -0.6285 174 199 232
-3.4945 -1.4215 -0.6095 174 199 232
-5.7305 0.0165 -0.6085 174 199 232
-3.2665 -0.8305 0.5765 31 119 180
-2.5905 -0.3545 -0.8965 174 199 232
-2.7265 -0.1835 -1.4065 174 199 232
-3.8115 -0.9795 -0.6085 174 199 232
-5.7655 0.1855 -0.8655 174 199 232
-5.9685 0.4395 -1.2665 174 199 232
-2.4615 -0.5195 -0.9215 174 199 232
-3.4205 -0.9945 -0.0065 31 119 180
-2.9305 -0.2735 -1.3105 174 199 232
-6.2055 0.6225 -1.4955 174 199 232
-6.0125 0.4965 -0.7325 174 199 232
-2.6665 -0.2595 -1.0025 174 199 232
-2.6065 -0.3345 -0.7545 174 199 232
-2.6565 -0.2715 -1.1425 174 199 232
-3.0835 -0.3945 -0.8775 174 199 232
-3.7995 0.6085 0.9335 152 223 138
-2.7655 -0.1435 -0.7725 174 199 232
-2.9325 -0.2745 -0.8905 174 199 232
-3.6705 -1.1475 0.1405 31 119 180
-2.9965 -0.6185 -0.1265 31 119 180
-3.6925 -0.8395 -0.7265 174 199 232
-3.9625 -1.3785 0.4155 31 119 180
-6.1265 0.6355 -1.2685 174 199 232
-3.0025 -0.3305 -1.3885 174 199 232
-6.3145 0.8715 -1.0695 174 199 232
-6.0705 0.2995 -0.6095 174 199 232
-5.7645 0.1815 -1.2775 174 199 232
-2.4195 -0.5745 -0.7705 174 199 232
-2.4585 -0.5235 -0.9445 174 199 232
-6.2685 0.8135 -0.7445 174 199 232
-6.0635 0.5595 -0.6815 174 199 232
-6.1665 0.6845 -1.0055 174 199 232
-3.4815 -0.6995 -0.7285 174 199 232
-6.3205 0.2585 -0.6115 174 199 232
-2.5085 -0.4555 0.6415 31 119 180
-5.9095 0.3645 -1.1435 174 199 232
-3.9645 -1.3805 0.3715 31 119 180
-3.3345 -0.5915 -0.9555 174 199 232
-2.9095 -0.2575 -1.1395 174 199 232
-5.9515 0.3135 -0.6085 174 199 232
-3.8645 -1.3005 0.4185 31 119 180
-5.8725 0.3185 -1.2525 174 199 232
-5.7095 0.1125 -1.1805 174 199 232
-2.7945 -0.4615 -0.0635 31 119 180
-3.3565 -0.8945 0.0555 31 119 180
-4.2885 -1.6325 0.5625 31 119 180
-3.1425 -0.4405 -1.0795 174 199 232
-3.0785 -0.3895 -1.3295 174 199 232
-2.7555 -0.1545 -1.3335 174 199 232
-5.8645 0.1135 -0.6085 174 199 232
-2.7305 -0.1785 -0.9475 174 199 232
-3.2335 -0.5145 -1.0305 174 199 232
-3.8035 0.7495 0.9315 152 223 138
-2.6515 -0.2355 -0.6385 174 199 232
-3.3505 -0.6065 -0.6765 174 199 232
-5.7705 0.1905 -1.0025 174 199 232
-4.1075 -1.4955 0.0575 31 119 180
-2.8885 -0.4025 -0.6235 174 199 232
-4.0325 -1.2605 -0.6075 174 199 232
-4.0665 -1.1675 -0.7845 174 199 232
-2.9565 -0.5865 0.3035 31 119 180
-3.7325 -1.1965 0.2965 31 119 180
-5.9765 0.4485 -1.0945 174 199 232
-3.8065 -0.9765 -0.9885 174 199 232
-3.4375 -0.9645 0.5125 31 119 180
-5.8685 0.3135 -1.1565 174 199 232
-4.4535 -1.7635 0.5685 31 119 180
-2.4195 -0.5665 -0.0695 31 119 180
-2.5315 -0.4305 -1.3335 174 199 232
-3.4625 -0.9835 0.5475 31 119 180
-3.6815 -0.8765 -0.8015 174 199 232
-6.0845 0.5835 -1.0285 174 199 232
-5.8395 0.2235 -0.6095 174 199 232
-3.7975 -0.9515 -0.7885 174 199 232
-2.6975 -0.2205 -1.1575 174 199 232
-1.5405 0.1215 -0.1245 255 187 120
-6.1975 0.7245 -0.7355 174 199 232
-5.8245 0.0325 -0.6085 174 199 232
-3.7115 -0.8885 -0.7055 174 199 232
-4.1575 -1.5335 0.3035 31 119 180
-2.7365 -0.1685 -0.8425 174 199 232
-2.6475 -0.3435 0.4475 31 119 180
-3.1215 -0.7165 0.4215 31 119 180
-6.5825 0.6485 -0.6105 174 199 232
-3.2115 -0.7875 0.5505 31 119 180
-5.7545 0.1705 -1.1435 174 199 232
-3.7415 -1.2025 0.3705 31 119 180
-2.6125 -0.3255 0.4435 31 119 180
-2.8105 -0.4735 0.0825 31 119 180
-4.4735 -1.7835 0.0275 31 119 180
-3.0845 -0.3945 -1.1995 174 199 232
-6.1965 0.7235 -1.4045 174 199 232
-5.8795 0.3285 -1.3295 174 199 232
-5.7875 0.2165 -0.6995 174 199 232
-5.8685 0.3165 -0.7735 174 199 232
-5.8915 0.3435 -1.0375 174 199 232
-3.2555 -0.8845 -1.0175 174 199 232
-2.4585 -0.5245 -0.7335 174 199 232
-3.8935 -1.3235 0.5305 31 119 180
-2.6625 -0.2645 -0.7165 174 199 232
-3.3795 -0.6285 -0.7445 174 199 232
-3.5835 -1.0795 0.0065 31 119 180
-2.4455 -0.5325 -0.1245 31 119 180
-3.4585 -0.9815 0.4545 31 119 180
-6.2975 0.1355 -0.6115 174 199 232
-2.5735 -0.3785 -0.9935 174 199 232
-3.8075 -0.9825 -0.9535 174 199 232
-3.3355 -0.5925 -1.2635 174 199 232
-4.2375 -1.5965 0.3145 31 119 180
-5.9795 0.4535 -1.1045 174 199 232
-3.1505 -0.4475 -1.1765 174 199 232
-6.0635 0.5565 -1.3825 174 199 232
-4.1755 -1.5445 0.5535 31 119 180
-3.1805 -0.4705 -0.7925 174 199 232
-3.1495 -0.4455 -1.2695 174 199 232
-2.9545 -0.4195 -0.6085 174 199 232
-6.1425 0.6555 -1.2515 174 199 232
-3.3945 -0.9595 -0.0205 31 119 180
-2.4475 -0.5335 0.6175 31 119 180
-4.2875 -1.6345 0.2975 31 119 180
-2.9705 -0.6795 -0.6155 174 199 232
-3.6335 -0.8535 -0.6115 174 199 232
-2.9235 -0.2675 -1.3555 174 199 232
-3.2575 -0.5315 -1.2055 174 199 232
-2.9705 -0.3045 -1.0015 174 199 232
-3.2815 -0.9015 -1.0135 174 199 232
-6.2985 0.8525 -0.7175 174 199 232
-2.6255 -0.3115 -0.9875 174 199 232
-3.3635 -0.9065 0.4465 31 119 180
-4.1955 -1.5635 0.1785 31 119 180
-3.8385 -1.2805 0.3005 31 119 180
-5.6725 0.0675 -1.4095 174 199 232
-2.9965 -0.6255 -0.6085 174 199 232
-3.0045 -0.3315 -1.3735 174 199 232
-3.2725 -0.5425 -0.9055 174 199 232
-6.0025 0.4185 -0.6085 174 199 232
-5.8875 0.3435 -0.6725 174 199 232
-3.3365 -0.5925 -1.1405 174 199 232
-6.0475 0.5385 -0.6975 174 199 232
-2.5615 -0.3925 -0.9925 174 199 232
-6.2825 0.8305 -1.0945 174 199 232
-4.2895 -1.6345 0.4065 31 119 180
-6.1355 0.2755 -0.6095 174 199 232
-4.6565 -1.9265 0.0825 31 119 180
-2.4995 -0.4655 0.1035 31 119 180
-3.2625 -0.9535 -0.6275 174 199 232
-4.4925 -1.7955 0.5455 31 119 180
-5.9465 0.4125 -1.1125 174 199 232
-2.5265 -0.6295 -0.6085 174 199 232
-3.5805 -1.0775 0.1015 31 119 180
-5.8595 0.3265 -0.6195 174 199 232
-2.8265 -0.4845 0.4445 31 119 180
-6.0645 0.5585 -0.8655 174 199 232
-3.2965 -0.8535 0.1825 31 119 180
-4.4325 -1.7485 0.1235 31 119 180
-3.0565 -0.6645 0.4075 31 119 180
-2.5735 -0.3775 -0.6695 174 199 232
-5.8735 0.3235 -0.7655 174 199 232
-3.7015 -1.3675 -0.1225 31 119 180
-2.6595 -0.2675 -1.3895 174 199 232
-2.5705 -0.3765 0.3265 31 119 180
-6.0595 0.5525 -1.0785 174 199 232
-2.6135 -0.3265 -1.1395 174 199 232
-2.5295 -0.4275 0.3875 31 119 180
-3.1605 -0.5625 -0.6095 174 199 232
-2.6675 -0.5705 -0.6325 174 199 232
-3.3035 -0.5675 -0.9695 174 199 232
-6.1005 0.6035 -1.0955 174 199 232
-6.0255 0.0335 -0.6085 174 199 232
-6.0265 0.5125 -0.7025 174 199 232
-6.1535 0.6695 -1.4185 174 199 232
-3.9495 -1.3685 0.3365 31 119 180
-3.6725 -1.1525 -0.6085 174 199 232
-6.2745 0.8205 -0.9565 174 199 232
-6.1845 0.7085 -0.9045 174 199 232
-2.7745 -0.1495 -1.1955 174 199 232
-2.6295 -0.3075 -1.1215 174 199 232
-6.1645 0.6825 -0.9735 174 199 232
-2.5375 -0.4225 -0.9135 174 199 232
-5.7255 0.1345 -1.3055 174 199 232
-4.0065 -1.4125 0.4585 31 119 180
-2.9835 -0.3145 -1.0185 174 199 232
-2.5165 -0.4505 -1.2945 174 199 232
-3.7915 0.7115 0.8945 152 223 138
-5.6625 0.0585 -0.7075 174 199 232
-4.6735 -1.9385 0.5535 31 119 180
-3.0485 -0.4325 -0.6185 174 199 232
-6.1575 0.6765 -0.6795 174 199 232
-2.5845 -0.3635 -1.4015 174 199 232
-4.1975 -1.5615 0.5545 31 119 180
-5.9135 0.3715 -1.0025 174 199 232
-5.8555 0.2975 -1.3835 174 199 232
-3.5935 -1.0865 0.5105 31 119 180
-3.8025 -1.2535 -0.0895 31 119 180
-5.8185 0.0235 -0.6085 174 199 232
-3.7625 -1.2795 -0.0195 31 119 180
-5.9215 0.3795 -1.2465 174 199 232
-3.6345 -1.4535 -0.0615 31 119 180
-5.8385 0.2775 -1.3645 174 199 232
-5.8745 0.2065 -1.4735 174 199 232
-2.4975 -0.4705 0.3945 31 119 180
-3.0985 -0.4055 -0.7145 174 199 232
-2.5285 -0.4345 -1.4075 174 199 232
-5.6295 0.0135 -1.3905 174 199 232
-3.7235 -1.1895 0.0095 31 119 180
-2.7505 -0.4265 -0.6205 174 199 232
-3.7335 -0.9485 -0.6085 174 199 232
-2.5945 -0.3505 -0.7515 174 199 232
-2.6565 -0.2735 -0.7815 174 199 232
-3.2995 -0.5775 -0.6085 174 199 232
-6.1955 0.7225 -0.8955 174 199 232
-3.0565 -0.6655 -0.0275 31 119 180
-2.2425 -0.4405 -1.4995 214 39 40
-3.6865 -0.8695 -0.6905 174 199 232
-2.9765 -0.3095 -1.4155 174 199 232
-3.2345 -0.8055 0.4365 31 119 180
-3.6445 -1.1255 0.4995 31 119 180
-3.0625 -0.6685 0.4295 31 119 180
-6.2495 0.7915 -0.7185 174 199 232
-2.9185 -0.2635 -0.7175 174 199 232
-5.8115 0.2465 -0.6845 174 199 232
-6.1065 0.6105 -0.8615 174 199 232
-2.6925 -0.2265 -1.3735 174 199 232
-4.5435 -1.8535 0.3945 31 119 180
-3.7675 -1.2835 -0.1035 31 119 180
-6.5035 0.6915 -0.6085 174 199 232
-2.5745 -0.3755 -1.0675 174 199 232
-6.1245 0.6315 -0.9915 174 199 232
-2.7235 -0.1875 -0.6695 174 199 232
-3.9595 -1.0835 -0.8295 174 199 232
-5.9625 0.4335 -1.3795 174 199 232
-3.8485 -1.1715 -0.6085 174 199 232
-6.1375 0.6495 -1.3685 174 199 232
-5.6975 0.0975 -0.9675 174 199 232
-6.2135 0.7445 -0.8155 174 199 232
-2.6175 -0.3245 -1.4695 174 199 232
-6.0945 0.5975 -0.8425 174 199 232
-3.2175 -0.7925 0.1325 31 119 180
-2.6305 -0.3045 -1.3545 174 199 232
-3.8685 -1.3045 0.0785 31 119 180
-5.6695 0.0645 -0.8555 174 199 232
-2.5555 -0.4015 -1.0895 174 199 232
-2.5935 -0.3465 0.5125 31 119 180
-2.8235 -0.7785 -0.6305 174 199 232
-3.7345 -1.1975 0.1975 31 119 180
-2.7565 -0.1535 -0.6955 174 199 232
-2.4865 -0.4825 0.3775 31 119 180
-3.1305 -0.4305 -1.0515 174 199 232
-2.7005 -0.3875 0.0235 31 119 180
-6.1675 0.6875 -0.8975 174 199 232
-6.5485 0.5505 -0.6135 174 199 232
-2.8485 -0.2945 -1.4965 174 199 232
-2.6245 -0.6085 -0.6335 174 199 232
-2.7615 -0.4345 0.0915 31 119 180
-5.8015 0.2315 -0.8435 174 199 232
-2.5895 -0.3585 -0.7635 174 199 232
-5.8815 0.1585 -0.6085 174 199 232
-3.2955 -0.8535 0.2915 31 119 180
-3.6525 -1.4985 -0.6275 174 199 232
-2.8525 -0.4655 -0.6095 174 199 232
-2.5475 -0.4055 0.3515 31 119 180
-4.1725 -1.5455 0.2335 31 119 180
-2.4615 -0.5185 -0.8875 174 199 232
-3.3545 -0.6125 -1.2555 174 199 232
-3.2295 -0.4955 -0.6095 174 199 232
-3.0605 -0.6685 -0.0615 31 119 180
-3.7475 -1.3085 -0.0915 31 119 180
-6.4155 0.7565 -0.6085 174 199 232
-6.3945 0.4325 -0.6365 174 199 232
-2.6075 -0.5375 -0.6085 174 199 232
-5.6445 0.0325 -1.3675 174 199 232
-6.1055 0.6395 -0.6245 174 199 232
-2.5895 -0.3525 0.5775 31 119 180
-3.0195 -0.6355 0.0125 31 119 180
-6.0515 0.5425 -0.9375 174 199 232
-6.5155 0.4815 -0.6125 174 199 232
-6.1945 0.2055 -0.6105 174 199 232
-4.4655 -1.7725 0.6005 31 119 180
-6.3525 0.6255 -0.6085 174 199 232
-3.7695 -0.9165 -0.9315 174 199 232
-4.3995 -1.7215 0.5295 31 119 180
-2.9685 -0.3025 -0.8875 174 199 232
-6.0815 0.4665 -1.4755 174 199 232
-3.8705 0.7475 0.8485 152 223 138
-6.0715 0.5665 -1.1755 174 199 232
-4.4735 -1.7815 0.1945 31 119 180
-3.3195 -0.8715 0.4085 31 119 180
-2.5395 -0.4145 0.1515 31 119 180
-3.5025 -0.7235 -0.7455 174 199 232
-3.7765 -1.2715 -0.0035 31 119 180
-2.4385 -0.5455 0.3335 31 119 180
-3.6085 -1.1325 -0.0115 31 119 180
-3.5995 -0.8085 -0.7825 174 199 232
-3.7395 -1.2005 0.4315 31 119 180
-3.8125 -1.2595 0.4345 31 119 180
-5.6705 0.0695 -0.6775 174 199 232
-6.2345 0.7725 -0.7045 174 199 232
-6.0995 0.6035 -0.7845 174 199 232
-5.7775 0.2005 -0.6085 174 199 232
-6.2045 0.7355 -0.7475 174 199 232
-3.1055 -0.4115 -1.0245 174 199 232
-6.3425 0.2975 -0.6115 174 199 232
-5.7165 0.1205 -1.0685 174 199 232
-3.2195 -0.5015 -0.6725 174 199 232
-5.8645 0.0785 -0.6145 174 199 232
-2.4935 -0.5375 -0.6255 174 199 232
-3.5245 -1.0345 0.0915 31 119 180
-3.6145 -1.4785 -0.1045 31 119 180
-2.6615 -0.2665 -1.0695 174 199 232
-2.6505 -0.3455 0.5465 31 119 180
-4.6125 -1.8915 0.3515 31 119 180
-3.2595 -0.6035 -0.6095 174 199 232
-2.8745 -0.5225 0.5205 31 119 180
-2.8215 -0.1635 -0.6175 174 199 232
-2.4195 -0.5725 -1.2035 174 199 232
-3.4175 -0.6995 -1.0625 174 199 232
-3.0265 -0.6405 0.3985 31 119 180
-5.9215 0.2675 -1.4915 174 199 232
-3.7865 -1.2375 0.4355 31 119 180
-5.8225 0.1435 -1.4835 174 199 232
-2.9675 -0.5935 0.5605 31 119 180
-2.9295 -0.2715 -0.8705 174 199 232
-2.4725 -0.4645 -0.6385 174 199 232
-6.2145 0.7465 -0.6755 174 199 232
-2.7095 -0.1695 -0.6455 174 199 232
-2.4705 -0.5005 -0.0535 31 119 180
-2.4605 -0.4795 -0.6435 174 199 232
-6.2825 0.8305 -0.8105 174 199 232
-2.5035 -0.4665 -0.7805 174 199 232
-4.3645 -1.6935 0.5055 31 119 180
-3.5385 -1.0435 0.1815 31 119 180
-2.8985 -0.2485 -1.1785 174 199 232
-3.5855 -1.0805 0.3595 31 119 180
-1.5865 0.0785 0.0035 255 187 120
-4.0555 -1.4535 0.0715 31 119 180
-6.1595 0.2215 -0.6105 174 199 232
-2.6945 -0.3815 0.2615 31 119 180
-6.3255 0.8845 -1.2365 174 199 232
-3.3835 -1.3215 0.8745 148 103 189
-3.2785 -0.5485 -0.7985 174 199 232
-2.7215 -0.3125 -0.6255 174 199 232
-2.7525 -0.1565 -1.3415 174 199 232
-4.0715 -1.4645 0.4475 31 119 180
-2.5305 -0.4315 -1.0195 174 199 232
-2.5065 -0.4635 -0.7215 174 199 232
-3.2455 -0.5205 -0.7445 174 199 232
-2.5925 -0.3475 0.3695 31 119 180
-6.1965 0.7235 -0.8815 174 199 232
-3.3975 -0.6375 -1.0335 174 199 232
-3.0285 -0.6435 -0.1305 31 119 180
-5.7325 0.1425 -0.9695 174 199 232
-2.5615 -0.3925 -1.0415 174 199 232
-2.5775 -0.3725 -1.0185 174 199 232
-3.1665 -0.8105 -0.6105 174 199 232
-2.8995 -0.5435 0.0375 31 119 180
-2.4205 -0.5725 -0.7585 174 199 232
-6.3915 0.8565 -0.6095 174 199 232
-2.7285 -0.1805 -0.9205 174 199 232
-5.9495 0.4165 -1.0265 174 199 232
-3.2575 -0.5305 -0.9645 174 199 232
-2.7005 -0.4015 -0.6305 174 199 232
-6.3485 0.9125 -0.9755 174 199 232
-2.6055 -0.3385 -0.7415 174 199 232
-3.4625 -1.1305 -0.6145 174 199 232
-4.0595 -1.4605 -0.0715 31 119 180
-4.3865 -1.7105 0.5885 31 119 180
-4.2045 -1.5705 0.2095 31 119 180
-4.2275 -1.5885 0.0095 31 119 180
-3.9065 -1.3355 0.0975 31 119 180
-2.6115 -0.3275 0.5485 31 119 180
-6.1785 0.7005 -1.0875 174 199 232
-2.5885 -0.3815 -0.6195 174 199 232
-3.2835 -0.5505 -1.2155 174 199 232
-2.7255 -0.2705 -0.6115 174 199 232
-3.6705 -1.1475 0.1665 31 119 180
-5.9155 0.3735 -0.9025 174 199 232
-3.2965 -0.5575 -0.8715 174 199 232
-6.1995 0.2615 -0.6095 174 199 232
-3.5065 -1.0465 -0.000500001 31 119 180
-6.1235 0.6315 -1.2015 174 199 232
-2.6765 -0.2475 -1.2235 174 199 232
-2.5585 -0.3965 -0.7585 174 199 232
-6.3255 0.8845 -0.9865 174 199 232
-2.5655 -0.3875 -1.3965 174 199 232
-5.6795 0.0755 -1.2455 174 199 232
-3.4165 -0.6505 -1.0635 174 199 232
-5.8605 0.3055 -0.8225 174 199 232
-2.8505 -0.2095 -1.1955 174 199 232
-5.9325 0.3955 -0.9985 174 199 232
-6.3725 0.9315 -0.6915 174 199 232
-3.4155 -0.6375 -0.8275 174 199 232
-2.8335 -0.1965 -0.7475 174 199 232
-5.9155 0.3755 -0.7885 174 199 232
-6.1915 0.7155 -1.2125 174 199 232
-5.7885 0.2135 -1.0305 174 199 232
-3.7115 -1.2145 -0.0165 31 119 180
-4.4185 -1.7395 0.0065 31 119 180
-2.5755 -0.3665 -0.1105 31 119 180
-5.7305 0.1405 -0.9485 174 199 232
-2.8735 -0.5215 0.4845 31 119 180
-4.1165 -1.4995 0.4055 31 119 180
-2.6675 -0.2595 -0.7675 174 199 232
-6.1755 0.2285 -0.6105 174 199 232
-3.4235 -0.9535 0.5885 31 119 180
-2.5145 -0.4485 0.3105 31 119 180
-6.2905 0.8395 -0.9955 174 199 232
-2.9595 -0.2685 -0.7095 174 199 232
-5.6535 0.0425 -1.1875 174 199 232
-2.4785 -0.4515 -0.6155 174 199 232
-6.0885 0.5875 -1.1415 174 199 232
-2.8355 -0.8415 -0.6315 174 199 232
-2.4945 -0.4725 0.0895 31 119 180
-5.6815 0.0815 -0.7515 174 199 232
-5.8235 0.2565 -1.1505 174 199 232
-3.4995 -1.0135 0.3385 31 119 180
-6.0115 0.4105 -0.6095 174 199 232
-2.4835 -0.4885 0.4055 31 119 180
-6.0425 0.5315 -0.8005 174 199 232
-4.2985 -1.6415 0.4635 31 119 180
-6.1785 0.3955 -0.6085 174 199 232
-2.6695 -0.3605 0.4935 31 119 180
-3.3705 -0.6125 -0.7535 174 199 232
-2.6395 -0.2945 -0.7355 174 199 232
-2.8665 -0.5155 0.3835 31 119 180
-4.1975 -1.5645 0.0635 31 119 180
-6.0525 0.4705 -0.6085 174 199 232
-2.5815 -0.3665 -0.9775 174 199 232
-2.8755 -0.2295 -0.8245 174 199 232
-2.9545 -0.8525 -0.1125 31 119 180
-6.0375 0.5255 -1.3925 174 199 232
-4.5295 -1.8275 0.0835 31 119 180
-3.8935 -1.0305 -0.8605 174 199 232
-5.8955 0.3485 -1.3895 174 199 232
-6.1615 0.6785 -1.1115 174 199 232
-6.1095 0.6125 -1.0595 174 199 232
-5.7905 0.2325 -0.6115 174 199 232
-5.9555 0.4245 -1.3635 174 199 232
-2.4395 -0.5475 -0.9075 174 199 232
-2.6685 -0.3375 -0.6085 174 199 232
-3.1105 -0.7095 0.1585 31 119 180
-2.6795 -0.2465 -1.4875 174 199 232
-4.4405 -1.7565 0.1725 31 119 180
-4.5085 -1.8085 0.4795 31 119 180
-3.9995 -1.1155 -0.9525 174 199 232
-4.4605 -1.7685 0.5125 31 119 180
-6.2895 0.8395 -0.8035 174 199 232
-3.7445 -1.2045 0.4395 31 119 180
-3.2115 -0.6505 -0.6095 174 199 232
-3.8565 -1.0015 -0.9635 174 199 232
-6.3225 0.8805 -1.2635 174 199 232
-6.0135 0.4945 -1.4105 174 199 232
-3.5855 -0.7685 -0.7235 174 199 232
-3.9915 -1.1095 -0.9795 174 199 232
-5.8805 0.3275 -1.0925 174 199 232
-4.1165 -1.4985 0.5975 31 119 180
-6.1645 0.6825 -1.0485 174 199 232
-6.2475 0.6115 -0.6085 174 199 232
-5.7575 0.1775 -0.8175 174 199 232
-2.4245 -0.5205 -0.6315 174 199 232
-4.4695 -1.7775 0.3495 31 119 180
-2.5505 -0.4025 0.4545 31 119 180
-2.8215 -0.1865 -1.1545 174 199 232
-2.5805 -0.3695 -0.7955 174 199 232
-2.9875 -0.6095 0.5565 31 119 180
-2.4565 -0.5225 0.4395 31 119 180
-2.7785 -0.6645 -0.6275 174 199 232
-3.1695 -0.4615 -1.3245 174 199 232
-4.0255 -1.4295 0.2035 31 119 180
-2.8485 -0.4185 -0.6065 174 199 232
-4.2245 -1.5865 0.1335 31 119 180
-2.8485 -0.5025 0.1985 31 119 180
-3.0945 -0.7855 -0.6085 174 199 232
-3.8835 -1.3155 0.4975 31 119 180
-5.8075 0.2365 -1.0905 174 199 232
-6.3705 0.6965 -0.6085 174 199 232
-2.6795 -0.2475 -1.4425 174 199 232
-6.1425 0.5815 -0.6085 174 199 232
-3.2335 -0.8045 0.5705 31 119 180
-2.5265 -0.4305 0.0295 31 119 180
-3.1325 -0.4325 -1.0335 174 199 232
-3.0275 -0.3265 -0.6315 174 199 232
-3.5395 -0.7445 -0.6755 174 199 232
-2.7145 -0.8115 -0.6215 174 199 232
-3.9695 -1.3845 -0.0725 31 119 180
-2.9635 -0.2995 -0.7755 174 199 232
-2.9625 -0.3855 -1.4965 174 199 232
-3.1255 -0.7195 0.5505 31 119 180
-6.0885 0.5935 -0.7105 174 199 232
-3.7345 -0.8965 -0.6565 174 199 232
-6.1915 0.6045 -1.4985 174 199 232
-3.7835 -1.2365 0.0255 31 119 180
-3.6655 -1.4135 -0.0675 31 119 180
-2.6045 -0.3375 0.3785 31 119 180
-2.6985 -0.2205 -0.7975 174 199 232
-6.0745 0.5725 -0.7325 174 199 232
-2.7665 -0.4395 0.1385 31 119 180
-4.2495 -1.6055 0.2465 31 119 180
-2.6495 -0.2805 -1.1665 174 199 232
-6.0305 0.5145 -1.0085 174 199 232
-2.9685 -0.3035 -0.8045 174 199 232
-6.0755 0.4515 -0.6085 174 199 232
-2.7115 -0.6465 -0.6345 174 199 232
-3.8495 -0.9945 -0.7345 174 199 232
-2.5295 -0.4335 -1.2735 174 199 232
-3.0295 -0.6435 0.4515 31 119 180
-6.0565 0.5485 -1.3825 174 199 232
-2.9425 -0.5755 0.2625 31 119 180
-2.8335 -0.1975 -1.1915 174 199 232
-2.7255 -0.1395 -0.6235 174 199 232
-4.4165 -1.7365 0.2385 31 119 180
-2.8035 -0.4655 0.6305 31 119 180
-3.1035 -0.7015 0.5935 31 119 180
-3.8845 -1.0265 -0.6115 174 199 232
-3.1695 -0.5445 -0.6095 174 199 232
-2.6845 -0.3735 0.3585 31 119 180
-3.7175 -0.8925 -0.6925 174 199 232
-3.7985 -1.2495 0.5805 31 119 180
-5.9115 0.3685 -1.0885 174 199 232
-6.2575 0.7995 -0.7045 174 199 232
-5.9915 0.4695 -0.8075 174 199 232
-2.7105 -0.2055 -1.1785 174 199 232
-5.7975 0.2285 -0.7655 174 199 232
-2.4955 -0.4795 -1.4355 174 199 232
-3.5745 -1.0725 0.2805 31 119 180
-3.2205 -0.5025 -1.1635 174 199 232
-5.9985 0.4775 -0.7265 174 199 232
-2.7995 -0.4645 0.3705 31 119 180
-2.5535 -0.4035 -0.8055 174 199 232
-3.6645 -1.1405 0.6225 31 119 180
-4.1795 -1.5505 0.0775 31 119 180
-5.7745 0.1945 -1.1165 174 199 232
-3.8185 0.7405 0.8985 152 223 138
-5.7905 0.2185 -0.7355 174 199 232
-4.0545 -1.4515 0.4515 31 119 180
-2.6175 -0.3215 -1.0475 174 199 232
-6.2385 0.5025 -0.6085 174 199 232
-2.9125 -0.2585 -0.6895 174 199 232
-2.9885 -0.3185 -1.3485 174 199 232
-2.6845 -0.3735 -0.0515 31 119 180
-3.5525 -1.0535 0.6155 31 119 180
-3.9335 -1.3545 0.5305 31 119 180
-2.4225 -0.5695 -0.6615 174 199 232
-2.8945 -0.5395 0.2675 31 119 180
-2.7495 -0.7755 -0.6085 174 199 232
-2.4445 -0.5425 -1.4085 174 199 232
-3.9575 -1.3765 0.0865 31 119 180
-5.7685 0.1865 -1.1385 174 199 232
-2.5625 -0.3855 0.1605 31 119 180
-2.5025 -0.4635 0.1515 31 119 180
-2.9675 -0.3025 -1.1215 174 199 232
-3.0185 -0.3425 -0.9445 174 199 232
-4.0645 -1.4575 0.5835 31 119 180
-3.7105 -0.8405 -0.8155 174 199 232
-3.0865 -0.6935 0.1125 31 119 180
-5.6515 0.0465 -0.6625 174 199 232
-5.6365 0.0445 -0.6295 174 199 232
-2.4795 -0.4905 0.5595 31 119 180
-3.1005 -0.4065 -0.8295 174 199 232
-3.1415 -0.7845 -0.6095 174 199 232
-6.1095 0.6145 -0.8885 174 199 232
-5.9545 0.4225 -0.9995 174 199 232
-3.7995 0.6865 0.9315 152 223 138
-3.1715 -0.7565 0.2145 31 119 180
-3.7135 -1.1805 0.2915 31 119 180
-2.8865 -0.2385 -1.0245 174 199 232
-2.4375 -0.5495 -1.0415 174 199 232
-2.6475 -0.2845 -0.9175 174 199 232
-4.5845 -1.8695 0.2285 31 119 180
-2.5635 -0.3915 -1.2305 174 199 232
-5.7165 0.1225 -1.0395 174 199 232
-2.4985 -0.4695 0.4435 31 119 180
-2.7215 -0.1885 -1.0865 174 199 232
-3.5085 -1.3205 -0.6765 174 199 232
-2.6985 -0.2215 -0.7405 174 199 232
-3.5095 -1.0195 0.5915 31 119 180
-5.8005 0.2295 -0.8905 174 199 232
-4.0215 -1.4245 0.4315 31 119 180
-2.8525 -0.2165 -0.6075 174 199 232
-4.6615 -1.9275 0.5495 31 119 180
-6.1315 0.4125 -0.6085 174 199 232
-3.2385 -0.8075 0.5835 31 119 180
-5.7835 0.2075 -1.3265 174 199 232
-4.3745 -1.7005 0.5715 31 119 180
-5.9645 0.4385 -0.6995 174 199 232
-5.6355 0.0405 -0.6205 174 199 232
-6.3345 0.8955 -1.0705 174 199 232
-2.9355 -0.5695 0.3985 31 119 180
-3.0205 -0.3435 -1.2675 174 199 232
-2.6245 -0.3135 -0.6685 174 199 232
-4.6925 -1.9555 0.4345 31 119 180
-2.5255 -0.4325 0.1105 31 119 180
-2.5085 -0.4555 0.4735 31 119 180
-2.4765 -0.4955 0.3795 31 119 180
-3.2415 -0.5175 -0.8505 174 199 232
-2.5225 -0.4425 -1.3405 174 199 232
-3.3585 -0.6865 -0.6075 174 199 232
-2.9765 -0.6015 0.2925 31 119 180
-1.4575 0.1845 -0.0585 255 187 120
-2.7065 -0.2085 -0.9855 174 199 232
-2.7945 -0.1665 -1.3975 174 199 232
-6.0465 0.5355 -1.1245 174 199 232
-3.8655 -1.0065 -0.7645 174 199 232
-2.9915 -0.6125 0.4315 31 119 180
-3.8125 0.7155 0.9295 152 223 138
-5.8935 0.3455 -1.0595 174 199 232
-2.7625 -0.1445 -0.8505 174 199 232
-2.9065 -0.2535 -1.1005 174 199 232
-6.2585 0.7845 -0.6075 174 199 232
-5.9285 0.3905 -1.3835 174 199 232
-2.4865 -0.4825 0.4895 31 119 180
-5.6915 0.0925 -0.9325 174 199 232
-3.9995 -1.4085 -0.1055 31 119 180
-2.4235 -0.5635 0.5315 31 119 180
-3.8785 -1.3105 0.5395 31 119 180
-4.4895 -1.7915 0.5945 31 119 180
-3.3425 -0.5985 -1.1195 174 199 232
-3.3175 -0.5775 -0.6545 174 199 232
-3.6975 -1.1685 0.0895 31 119 180
-5.8935 0.3465 -1.3205 174 199 232
-2.9365 -0.5715 0.0505 31 119 180
-5.9585 0.4295 -1.3905 174 199 232
-2.7885 -0.1955 -0.6075 174 199 232
-3.9335 -1.3555 0.4235 31 119 180
-6.1385 0.0495 -0.6075 174 199 232
-4.1835 -1.5515 0.5945 31 119 180
-3.0955 -0.6965 0.5065 31 119 180
-2.4935 -0.4785 -0.9945 174 199 232
-2.5345 -0.4225 0.4065 31 119 180
-2.8105 -0.1785 -0.8255 174 199 232
-5.6805 0.0745 -1.1065 174 199 232
-4.2565 -1.6115 0.2305 31 119 180
-3.7085 -0.8985 -0.7955 174 199 232
-3.2155 -0.7905 0.0775 31 119 180
-2.9715 -0.6995 -0.6125 174 199 232
-6.1185 0.6255 -0.8455 174 199 232
-6.3695 0.9325 -1.0355 174 199 232
-3.9185 -1.3445 0.1035 31 119 180
-2.5905 -0.3485 0.0085 31 119 180
-3.3545 -0.6115 -1.1435 174 199 232
-3.2225 -0.5035 -1.2925 174 199 232
-5.7585 0.1755 -0.9985 174 199 232
-2.7755 -0.7245 -0.6285 174 199 232
-3.5985 -0.7995 -0.7035 174 199 232
-2.5045 -0.4655 -1.2445 174 199 232
-2.7155 -0.1985 -0.7375 174 199 232
-4.1315 -1.5125 0.3335 31 119 180
-4.0645 -1.4595 -0.0315 31 119 180
-2.7335 -0.1485 -0.6485 174 199 232
-3.7125 0.5945 0.8515 152 223 138
-4.0895 -1.6865 -0.6345 174 199 232
-3.3755 -0.9155 0.1495 31 119 180
-6.3935 0.3485 -0.6125 174 199 232
-1.5405 0.1215 -0.1165 255 187 120
-2.7365 -0.4145 0.2675 31 119 180
-4.0195 -1.1095 -0.6425 174 199 232
-3.9015 -1.0365 -0.9175 174 199 232
-2.9305 -0.5665 -0.0935 31 119 180
-2.7525 -0.1815 -0.6095 174 199 232
-2.6855 -0.2355 -1.0505 174 199 232
-3.8245 -1.2695 0.3435 31 119 180
-3.4535 -1.3585 -0.6585 174 199 232
-2.7945 -0.1665 -1.1685 174 199 232
-2.9485 -0.5805 0.3635 31 119 180
-2.9885 -0.6115 0.2255 31 119 180
-2.5005 -0.4665 0.3115 31 119 180
-4.0965 -1.4855 0.3425 31 119 180
-2.6395 -0.2935 -1.2765 174 199 232
-3.9005 -1.0325 -0.6645 174 199 232
-3.8105 -1.2585 -0.0995 31 119 180
-3.0255 -0.6415 0.3785 31 119 180
-4.2905 -1.6365 0.3585 31 119 180
-4.4465 -1.7605 0.0065 31 119 180
-6.3145 0.1535 -0.6135 174 199 232
-3.5045 -1.0175 0.2825 31 119 180
-6.1675 0.6875 -0.9065 174 199 232
-3.8885 -1.0275 -0.9745 174 199 232
-5.9115 0.3735 -0.6945 174 199 232
-6.3245 0.8835 -1.2495 174 199 232
-3.7685 -0.9335 -0.7455 174 199 232
-6.1505 0.6665 -0.8285 174 199 232
-6.2085 0.7385 -0.9285 174 199 232
-3.4385 -0.6835 -0.8025 174 199 232
-6.0255 0.5485 -0.7115 174 199 232
-3.6005 -1.0915 0.5155 31 119 180
-2.4685 -0.5045 0.1065 31 119 180
-6.0945 0.4775 -0.6085 174 199 232
-2.7325 -0.1765 -0.9585 174 199 232
-3.1015 -0.4085 -0.6995 174 199 232
-3.8795 -1.3135 -0.0425 31 119 180
-2.4885 -0.4805 0.4765 31 119 180
-4.1835 -1.5535 0.2035 31 119 180
-2.4495 -0.5355 -1.2475 174 199 232
-2.5905 -0.3565 -1.4015 174 199 232
-3.9115 -1.3385 0.3045 31 119 180
-4.1705 -1.5415 0.5105 31 119 180
-2.5895 -0.3495 0.1735 31 119 180
-2.7025 -0.2155 -0.8655 174 199 232
-5.8605 0.1905 -1.4735 174 199 232
-5.9305 0.3955 -0.8395 174 199 232
-6.1695 0.3215 -0.6095 174 199 232
-3.4885 -0.6935 -0.6845 174 199 232
-5.8715 0.3225 -0.7225 174 199 232
-4.6005 -1.8815 0.1665 31 119 180
-5.9655 0.4365 -1.2035 174 199 232
-2.8105 -0.1785 -1.1185 174 199 232
-2.4645 -0.5155 -1.0015 174 199 232
-6.1065 0.6115 -1.3305 174 199 232
-5.9025 0.3625 -0.6975 174 199 232
-3.0755 -0.6995 0.4635 31 119 180
-5.9225 0.3845 -0.7695 174 199 232
-4.5225 -1.8165 0.6295 31 119 180
-3.1835 -0.7655 0.1885 31 119 180
-2.8445 -0.2055 -1.3505 174 199 232
-5.9975 0.4625 -0.8435 174 199 232
-3.7965 -1.2485 0.5255 31 119 180
-5.7515 0.1605 -0.6085 174 199 232
-2.9055 -0.5465 0.3445 31 119 180
-2.9975 -0.7835 -0.6125 174 199 232
-3.2115 -0.5965 -0.6205 174 199 232
-3.9645 -1.0875 -0.9975 174 199 232
-2.4345 -0.5475 0.1015 31 119 180
-6.1545 0.6715 -1.0905 174 199 232
-5.7495 0.1685 -0.7015 174 199 232
-2.6125 -0.3275 0.5875 31 119 180
-2.5415 -0.4185 -0.9515 174 199 232
-6.1375 0.6495 -1.0555 174 199 232
-2.6735 -0.3655 0.4185 31 119 180
-2.5565 -0.3935 0.5875 31 119 180
-2.5285 -0.4365 -0.9725 174 199 232
-3.8485 -1.2865 0.5335 31 119 180
-3.8595 -1.0015 -0.8125 174 199 232
-3.6315 -1.4555 -0.1045 31 119 180
-3.3515 -0.8965 0.4715 31 119 180
-2.9865 -0.5895 -0.6105 174 199 232
-4.5975 -1.8765 0.5795 31 119 180
-3.8115 -1.2565 0.5905 31 119 180
-2.6515 -0.2775 -0.8695 174 199 232
-3.4135 -0.9445 0.5275 31 119 180
-6.1335 0.6435 -0.8415 174 199 232
-2.8495 -0.2095 -1.1385 174 199 232
-2.4925 -0.4805 -0.7655 174 199 232
-4.3825 -1.7085 0.4485 31 119 180
-3.3815 -0.6245 -0.8895 174 199 232
-4.3485 -1.6835 0.0795 31 119 180
-2.5625 -0.6555 -0.6245 174 199 232
-5.7425 0.1575 -0.8435 174 199 232
-2.6305 -0.7395 -0.6535 174 199 232
-2.6485 -0.3455 -0.0425 31 119 180
-2.6705 -0.3635 0.3975 31 119 180
-2.8225 -0.4825 0.4185 31 119 180
-2.8145 -0.3715 -0.6095 174 199 232
-2.7555 -0.1155 -0.6215 174 199 232
-3.6725 -1.1715 -0.6055 174 199 232
-2.4545 -0.5245 0.3045 31 119 180
-2.9015 -0.2265 -0.6205 174 199 232
-2.8145 -0.4755 0.1475 31 119 180
-3.1825 -0.7655 0.3085 31 119 180
-5.6845 0.0815 -1.2165 174 199 232
-5.9745 0.4525 -0.7225 174 199 232
-2.5775 -0.3755 -1.4945 174 199 232
